-0.499612 0.502507 -0.574445
0.870606 -0.278563 0.076872
-0.073492 -0.646821 0.728999
-0.747308 -0.533385 0.481512
0.480032 0.716163 0.669136
0.485663 0.724326 0.292060
0.991025 0.378636 0.441955
0.464326 -0.518894 0.679456
-0.695248 -0.512608 -0.499594
-0.240890 -0.893157 -0.019570
0.623628 0.081110 -0.422410
0.235958 -0.045150 1.061560
0.244345 -0.428741 0.953559
0.088676 0.367726 -0.895232
0.381180 0.834762 0.413905
0.224747 0.505399 0.894377
-0.216971 0.611785 -0.539026
-0.926981 -0.145365 0.128701
-0.546426 0.249018 0.896978
-0.081140 0.306184 -0.815195
-0.721623 -0.611267 0.406431
0.505605 0.607229 -0.350319
-0.144832 0.534099 0.888383
-0.223074 0.248705 0.938759
-0.370146 0.104844 0.745023
0.244430 -1.087866 -0.057578
0.198721 0.607362 0.670895
-0.663289 -0.059482 0.633264
-0.795095 -0.521669 -0.369056
0.804168 0.241601 0.733392
-0.264668 -0.212162 -0.831921
0.472804 0.866776 0.193727
0.805463 0.348865 -0.563138
0.660778 -0.219827 -0.811464
0.529841 -0.116226 -0.861022
0.317833 -0.826990 0.378169
-0.292356 0.818274 -0.293746
0.736558 0.518853 0.453406
-0.177215 -0.404165 -0.776088
-0.611832 0.241563 -0.261499
0.749233 0.721854 0.082431
-0.886720 0.026880 0.634005
0.695214 0.152597 -0.276840
0.732622 -0.469336 0.226359
-0.037220 0.674008 0.819751
-0.612714 -1.000173 0.279404
-0.320322 0.784300 -0.535192
-0.283844 -0.035981 -0.881951
-0.631866 -0.190961 0.726660
0.130634 0.301121 -1.089100
0.608068 -0.117641 0.700995
0.144448 -0.907110 0.053249
0.422813 -0.168945 0.835744
0.572680 -0.445212 0.540599
-0.075075 -0.053046 1.008085
0.978439 -0.522992 -0.347085
0.741118 0.460539 0.551641
0.318216 0.901305 -0.191189
0.931128 0.271960 -0.039074
-0.371868 0.726102 0.215148
-0.553310 0.465537 0.813354
-0.033215 0.246126 0.960631
0.393428 -0.729287 0.526863
-0.808883 1.019415 -0.216982
-0.196440 0.997905 -0.161985
-0.784641 -0.215693 0.439442
0.516679 0.631995 -0.500171
0.225147 -0.661708 -0.868522
0.863406 0.436861 -0.294049
0.772163 -0.063764 -0.364320
0.138924 -0.987482 -0.444832
0.250086 0.749064 -0.497187
0.476549 0.016541 -1.087373
0.117386 -0.269119 -1.068396
-0.056336 -0.202709 0.931811
-0.146811 -1.106573 -0.162958
0.130513 -0.970739 -0.232917
0.905162 0.454380 0.389934
-0.545656 0.672684 -0.590807
0.297957 0.265590 0.823757
0.500345 -0.581350 0.535835
-0.449822 -0.440303 -0.905756
-0.463963 0.832779 -0.159320
0.576432 0.243269 0.727631
-0.154536 0.383382 0.804509
-0.473282 0.926229 -0.067959
-0.150127 -1.165181 0.273606
-0.432592 -0.506870 -0.594842
0.142411 -0.122076 0.984716
-0.948327 0.167260 -0.612444
0.336864 0.314724 0.878412
-0.228280 -0.970847 0.312832
0.059097 -0.870763 0.192582
-0.966176 -0.391534 0.026464
0.108603 -0.819592 -0.528580
-0.837067 0.032648 -0.710715
-0.918155 -0.132043 -0.625406
-0.880740 0.431189 -0.789521
0.865945 0.139491 0.591580
0.767284 0.617815 -0.309515
0.466717 0.093382 -0.901504
-0.218556 -0.252376 0.905071
-0.260710 0.609218 0.793553
-0.501771 -0.027047 0.830233
0.121019 -0.079422 1.006490
0.003815 0.857909 -0.738144
-0.743945 0.469615 -0.186629
0.033264 -0.953329 0.575349
0.138282 1.031891 0.443678
0.631368 0.331655 -0.684035
-0.150962 0.591794 0.497636
0.414842 0.664910 -0.517621
0.851331 -0.402583 -0.624006
0.355326 -0.929372 0.073780
-0.591477 -0.657487 0.167305
0.647844 -0.677319 0.152087
0.206821 -0.589863 -0.885707
0.268420 0.637463 0.796196
0.673086 -0.538834 -0.457599
-0.627240 -0.158288 -0.713790
0.213375 -0.565323 0.747037
0.296890 -0.227048 0.827243
-0.331896 0.728912 0.841250
0.585472 0.484666 0.599079
0.147353 1.056048 0.348275
-1.028034 0.506774 0.117189
0.256923 -0.564150 -0.908490
0.602922 -0.722033 -0.175191
1.005123 0.043933 -0.264903
-0.872883 -0.059033 -0.479330
-0.706638 0.403583 0.406459
0.180005 1.016587 -0.008516
0.351247 0.329284 -0.739115
-0.485016 0.790190 -0.626100
0.830714 -0.311459 0.349488
-0.240188 0.484853 -0.864791
-0.726837 -0.086215 0.722312
-0.283377 -0.931932 -0.009456
-0.692724 0.799515 -0.041105
0.921426 -0.165101 0.176039
0.803833 -0.193265 0.705941
-0.009231 0.824287 -0.263412
-0.946142 0.016359 0.360532
-0.371937 1.123569 0.156954
-0.172929 0.777300 -0.419334
0.592570 0.139852 0.705937
-0.652668 -0.536931 0.625422
-0.965354 -0.016251 0.322595
0.699731 0.234566 0.725748
-0.127410 0.700208 0.770524
0.810545 -0.526863 0.443176
0.053785 0.818917 0.748823
0.586656 0.755282 0.411128
-0.908340 0.060284 0.351589
1.032582 -0.093352 0.253178
0.051235 1.025521 0.601460
-0.338800 -0.636354 -0.673734
0.042653 -0.583185 0.687508
0.057619 0.740300 0.826019
-0.045428 -0.329827 -0.930171
-0.400368 0.438429 0.510055
-0.489867 -0.537039 -0.805161
-0.597066 -0.664756 -0.312109
-0.843713 -0.192909 0.482607
0.640109 0.407862 -0.701004
0.401619 -0.676164 0.648049
-0.344393 0.722658 0.711395
0.371419 0.881274 0.014285
0.162020 0.042442 -1.037884
-0.741425 -0.476379 -0.414869
-0.458963 -0.937820 0.251131
0.286890 0.030010 1.021594
-0.871867 -0.066375 0.238966
0.143069 0.961716 -0.532563
-0.558054 -0.721054 0.253647
0.492921 0.957966 0.086433
-0.311558 -0.800657 0.580248
-0.554183 0.477940 -0.930527
0.768826 -0.322825 0.510390
0.624527 0.731422 0.079650
-0.204043 0.316808 0.924186
0.695839 0.601703 -0.306667
0.926902 -0.474530 0.286462
0.302775 -0.294003 0.724398
-0.027070 0.542039 -0.711215
-0.232212 -0.365827 0.781082
0.415981 -0.925600 0.411481
-0.553893 -0.200204 -1.012179
-0.892064 -0.168141 -0.393915
0.045740 0.892687 0.409315
0.420836 0.278725 -0.871360
0.879280 -0.662641 0.183435
0.699585 -0.505476 -0.279650
-0.665821 -0.737306 0.247596
-0.243365 0.388699 -0.997114
-0.410234 0.570576 0.780309
-0.049272 -0.323661 0.964931
0.304966 -0.230145 1.031629
0.479669 -0.411836 0.364330
0.134064 -0.705784 -0.789979
-0.502195 -0.623076 0.482742
0.218483 0.127622 -0.776765
0.163002 0.262755 -1.004611
0.855271 -0.633340 -0.401239
-0.773636 -0.611298 -0.022401
0.919754 0.053209 0.592348
0.868142 0.643089 0.425695
-0.581684 -0.962772 -0.122421
1.037340 0.033002 -0.526996
0.061148 0.097444 1.068035
-0.950150 -0.300386 -0.148751
-0.298412 -0.780739 -0.081651
-0.416956 -0.589020 -0.656198
0.119047 0.729930 0.539900
-0.264141 -1.090539 0.471459
0.065220 0.812327 -0.548638
-0.253965 0.495355 -0.845528
-0.021691 -0.983757 0.380907
-0.563234 -0.771477 0.310370
0.608550 -0.846250 -0.530348
-0.222327 -0.338984 0.845581
-0.663925 -0.303844 -0.711466
0.762895 0.509229 -0.125283
-0.269894 0.295803 0.770115
-0.088378 0.922421 -0.150724
0.036143 0.956614 0.276026
0.923344 -0.158099 -0.196019
-0.650058 0.516799 -0.420302
0.168037 -0.135411 0.831830
-0.662501 -0.715684 -0.179825
0.145266 -0.502231 0.669597
-0.905449 -0.015004 -0.581141
-0.731215 -0.383659 -0.578521
-0.296403 0.013945 -0.801053
0.311471 0.869305 0.293954
-0.153667 -0.878909 -0.243170
-0.135784 0.693505 0.751975
1.119225 0.172340 -0.060762
-0.174105 -0.225836 0.760798
0.347690 0.705351 -0.636184
0.618823 -0.242949 0.725441
0.851992 -0.253758 0.590332
0.738487 -0.437590 0.553396
-0.458971 0.487779 0.637713
0.821813 0.080064 0.505392
0.801777 -0.387686 0.232346
-0.673135 0.326185 -0.816867
0.347767 -0.073947 -0.936940
0.625892 -0.145613 1.001718
0.582781 -0.771038 0.231885
-0.206227 0.719124 0.551061
-0.636475 0.560434 -0.031361
0.313114 -0.424554 -0.627374
-0.227373 0.508491 -0.630877
0.461957 0.833990 0.381044
-0.975041 -0.363554 -0.146479
0.620646 -0.263248 -0.504245
-0.362365 -1.027314 -0.018316
-0.422086 -0.198817 -0.829479
0.820096 0.573886 0.166349
-0.772476 -0.681091 -0.536500
0.874002 -0.054691 0.648491
0.573594 0.694101 -0.369091
-0.901210 -0.104252 -0.081578
0.120709 -0.117162 -0.766578
-0.027893 -0.480359 -0.793611
-0.312413 -0.903504 -0.210473
-0.264886 -0.860719 -0.036162
-0.613957 0.746997 0.197415
-0.247775 0.881896 -0.419877
0.327996 -0.838238 0.381195
0.239206 -0.602909 0.673429
0.565451 -0.624787 0.569142
0.348322 -0.211229 -0.961455
-0.888023 -0.063394 -0.034735
-0.699375 -0.006663 -0.901623
0.253452 -0.809445 -0.510824
-0.135152 -0.185932 0.975160
-0.222522 -0.714792 -0.765647
0.290388 -0.981253 -0.002276
0.820073 -0.678377 0.258835
-0.493955 0.800461 0.416556
-0.661470 0.656642 0.111991
0.169321 0.113494 -1.015902
-0.732119 -0.392244 -0.307381
0.984570 0.226206 0.035808
-0.551188 0.121032 -0.821528
-0.901127 -0.247401 -0.292529
-0.080503 0.344445 -0.921594
-0.367644 -0.236023 -0.684233
0.907895 0.176150 -0.194841
0.666065 0.159236 -0.741389
0.443446 -0.903741 0.137241
-0.530033 0.639139 0.339988
0.628288 0.644771 0.677264
-0.723785 -0.101819 -0.547755
0.102642 -0.812757 -0.729507
0.135990 0.623477 -0.824650
-0.644691 -0.627824 0.255228
0.921900 0.547930 0.486263
0.291940 0.098279 -0.825005
-0.523350 -0.104458 0.952614
-0.472527 -0.123336 -0.985715
-0.604136 -0.706722 0.077054
-0.154879 -1.023227 0.476343
0.646193 -0.098804 0.723386
-0.924913 -0.095060 0.440535
-0.362044 0.733690 0.619165
0.261718 -0.896922 -0.316787
-0.109619 0.832684 0.680703
-0.543465 0.219247 -0.906405
0.446012 0.239594 0.651563
1.111056 0.178485 0.107600
0.626696 -0.149838 0.529095
0.564854 -0.941829 -0.105210
-0.354885 -1.004991 0.319509
-0.748013 0.481635 0.047044
0.393919 0.753049 0.444151
0.270115 0.405287 -0.744221
-0.000711 0.466039 -0.860398
-0.796407 -0.254497 -0.490213
-0.174172 -0.770014 -0.733999
-0.404441 -0.639047 0.840997
-0.176299 0.926282 -0.639950
0.278109 -0.081054 0.898227
-0.070314 -0.922845 -0.319383
-0.604868 -0.214997 -0.528737
-0.572196 -0.483877 0.532705
-0.909906 0.503207 0.348041
0.016559 1.161433 -0.004192
-0.538146 0.685087 0.097060
0.041666 -0.844502 0.412430
0.834035 0.075634 -0.541656
0.092653 0.082801 1.020479
0.276172 0.082126 0.872707
0.961802 0.251649 0.313401
0.468430 -0.600301 -0.572441
-0.267394 -0.892221 0.359936
-0.538738 0.088197 -0.902343
0.281820 0.198952 -0.939298
-0.835385 0.044048 -0.463485
-0.972603 0.163633 -0.073935
0.311090 0.593865 0.730037
-0.784833 0.346372 0.437527
-0.684273 0.507044 0.472851
-0.856250 -0.763053 -0.172835
-0.663981 -0.754033 -0.325414
0.899887 0.263306 -0.250301
-0.166670 0.167484 1.043273
-0.266774 -0.269672 -0.889078
-0.758599 -0.014951 0.820178
0.635192 -0.803245 0.163167
-0.532854 -0.824604 -0.121452
0.485182 0.796618 0.470686
0.761132 0.361489 -0.022474
-0.369168 -0.460319 0.662694
0.519422 0.087332 0.705722
-0.859785 -0.514147 -0.158796
0.976728 -0.385080 -0.523674
-1.069436 -0.548924 0.225913
-0.459112 0.388789 0.877348
-0.532144 -0.671008 -0.607658
-0.767529 0.206075 0.201639
-0.875186 -0.257947 0.248842
0.760472 -0.293025 0.429498
-0.478515 0.416012 -0.691117
0.860637 -0.214125 0.424392
0.453897 -0.307008 0.779445
0.205734 0.580487 -0.513833
0.829305 0.386184 -0.564172
0.239924 0.176113 0.841653
0.783258 0.090070 -0.653311
0.706140 0.476288 0.855775
-0.370999 -0.828697 -0.014024
0.581086 0.278758 -0.377622
-0.273706 0.591507 0.720293
0.619507 -0.913115 -0.121433
1.182554 0.174158 0.035438
0.331646 -0.773467 -0.246917
-0.205053 1.010783 0.195135
0.519651 0.476829 -0.641639
-0.317164 -0.912073 -0.215529
-0.300199 -0.315454 1.187082
0.533960 -0.517626 -0.411029
-0.091200 -0.969412 0.321427
0.323381 -0.925859 -0.365971
-0.185542 0.909330 0.606333
0.299890 0.611563 -0.745486
0.001362 -0.352697 0.968588
0.334434 -0.896366 -0.088801
0.870613 -0.052001 -0.542106
-0.429916 0.263016 -0.823732
-0.553261 0.574391 -0.701538
0.158966 -0.949064 0.038086
-0.529833 0.825640 -0.338287
0.681055 -0.316531 0.655842
0.693891 -0.856010 -0.153790
-0.775905 0.371121 -0.499989
0.004377 -0.799786 0.192750
0.029264 -1.024957 0.465742
0.540950 0.409483 -0.605602
0.571378 -0.401288 -0.621302
-0.353324 -0.011664 -0.871460
0.463184 -0.888833 0.537788
-0.316577 0.672217 0.257642
1.039387 -0.800772 -0.066659
-0.615374 0.514302 0.761034
0.807159 0.055049 0.624988
0.811786 -0.548846 0.169772
0.584371 0.377514 0.757575
-0.358917 0.771354 -0.618976
0.638447 -0.207169 -0.826240
0.892217 -0.286141 -0.486086
-0.419212 -0.208442 -0.893762
-0.661456 -0.720877 0.061109
-0.455008 0.152770 0.860002
-0.102241 0.367278 -0.903356
-0.345858 0.641811 -0.841468
-0.493326 -0.931991 -0.101276
0.005235 -0.350824 0.612598
0.255948 -0.957320 -0.391804
0.251137 -0.987947 0.014751
0.334816 0.216057 -0.915139
-0.682841 0.023949 -0.675989
0.238998 0.090411 1.082666
-0.382432 -0.123009 1.018380
-0.120751 0.046471 -0.913596
0.339332 -0.289065 0.940406
-0.513742 0.698624 0.251205
0.432817 0.391686 0.634319
0.581398 0.730316 -0.084847
0.078454 -1.082873 0.033882
-0.806592 -0.740622 -0.024433
0.797636 0.588158 0.350852
0.642090 0.374883 -0.772955
-0.108744 -0.341748 -0.988576
0.775310 0.381410 -0.359498
0.415285 -0.856401 0.427043
-0.235385 -0.834457 -0.644021
0.879747 0.493399 0.373029
0.329242 0.194260 1.051561
0.622502 -0.052380 -0.869727
-0.683808 0.690103 0.357336
-0.756222 0.798812 -0.124539
0.259438 -0.623018 0.734332
0.658356 -0.226568 -0.588758
0.904254 -0.079742 0.378970
0.014471 -0.681660 0.625858
-0.304013 0.299239 0.829190
0.793640 0.459322 0.361200
0.156290 -0.907382 -0.005203
-0.879188 -0.337938 0.228436
-0.486328 0.250798 0.598097
0.841062 -0.561182 0.144232
0.262895 0.220838 -0.939339
-0.465150 0.021569 0.791473
0.983871 0.070306 0.404042
-1.003558 0.200206 0.386126
0.647596 0.239157 -0.477236
0.642901 0.594801 0.293534
0.667084 0.607201 -0.195945
-0.511055 -0.696118 0.274037
-0.016608 -0.668178 -0.852078
-0.805708 -0.465415 0.309572
0.045806 -0.011097 0.972407
-0.242041 0.242435 -0.722512
-0.070685 0.309712 1.014989
0.583682 -0.632626 -0.163111
0.111465 0.665699 0.745951
0.825594 -0.194248 0.580436
1.122534 0.085894 0.152270
0.750278 -0.143715 0.414481
0.439422 0.122173 0.528445
0.774679 -0.631554 -0.195244
-1.090465 -0.191737 -0.408219
1.057845 -0.046791 0.376715
0.719563 0.359808 0.628600
-0.763607 -0.268722 0.498780
0.851997 -0.166400 0.643702
-0.885713 -0.129452 -0.116291
-0.555841 -0.587447 0.665949
-0.228429 -0.643974 -0.797976
-1.057002 0.310395 0.098412
-0.134328 -0.138717 -1.261270
-0.839790 -0.491779 -0.364595
0.743841 -0.532207 -0.253484
0.936192 0.274839 -0.207124
-0.146459 0.743298 0.321775
0.863445 -0.278084 -0.207400
0.736084 -0.606889 -0.098413
-0.775445 0.221822 -0.497402
-0.715341 -0.672872 -0.257359
-0.131683 0.757851 -0.500601
0.219603 0.536076 -0.949300
-0.953043 0.221229 0.206901
-0.568917 0.749335 0.336113
-0.812404 -0.471241 0.231145
0.894386 0.475242 -0.074145
1.037187 -0.168320 -0.260266
0.625065 -0.054292 0.663656
-0.298705 -0.884428 0.035652
-0.943977 -0.217842 -0.040372
-0.099957 0.254669 -0.821031
0.339686 -0.801565 -0.291493
-0.368650 -0.847966 -0.228198
0.555764 0.908421 -0.220048
0.858433 -0.537789 0.164555
0.447656 -0.913238 0.068506
1.007251 -0.328676 0.234173
-0.127120 -0.826777 0.522489
-0.613118 -0.529780 0.650413
-0.775602 0.437609 0.431743
0.385994 -0.173616 0.935223
0.167903 -0.187902 -0.907384
0.575997 0.168201 -0.460056
0.168603 0.028191 -0.971649
-0.778841 0.764649 0.336913
0.245567 -0.613985 0.869794
0.938228 -0.075168 -0.562564
0.342296 0.473735 0.959643
-0.398618 -0.267730 -0.887262
-0.369915 0.343497 0.886016
0.880010 -0.168362 -0.278426
0.319835 -0.489453 -0.771962
0.559155 -0.901883 -0.029996
-0.960017 0.191316 -0.545009
-0.765649 0.453976 -0.424254
-0.129132 0.871687 -0.368069
0.746083 0.275913 0.606084
0.697533 -0.793983 0.083031
0.305062 -0.731267 -0.322896
0.751390 -0.001333 0.169998
0.851895 -0.018004 0.408502
-0.734953 -0.266853 -0.399240
0.111269 -0.928245 -0.164116
0.606206 -0.219256 -0.745052
0.430921 -0.595884 -0.608798
0.017786 1.067321 0.414849
-0.757826 0.243371 -0.657941
0.708173 0.746191 0.051839
0.924991 -0.274726 0.444107
-0.430156 -0.338777 -0.696706
0.146347 1.084028 0.148613
-0.409469 -0.764049 -0.483186
-0.297159 -0.272546 0.987930
-0.560818 0.694073 -0.029381
0.505048 0.437189 0.516897
-0.509171 -0.948263 0.108669
-0.419471 -0.053816 -0.947548
0.122571 -0.868333 0.242281
-0.389500 -0.049612 0.824293
0.652310 -0.872425 0.226095
-0.642422 -0.217279 0.562448
-0.691127 -0.278359 0.894638
0.545534 -0.534314 -0.494861
-0.714621 0.495680 -0.612676
0.627991 0.703492 0.214668
1.026381 0.187668 -0.188676
0.022383 -0.693199 0.642738
-0.429430 -0.404836 0.787022
-0.273151 -0.920295 -0.294357
0.176440 0.744484 -0.473518
0.582207 0.671970 0.602615
0.843477 0.077298 -0.427273
-0.441023 0.602327 0.630479
-0.751722 -0.476512 -0.137357
-0.546192 0.439027 0.249236
-0.532744 0.220768 -0.793477
0.991039 -0.681195 0.307484
-0.621390 0.875288 -0.104033
-0.979192 -0.086292 0.172883
0.152811 -0.711884 -0.646516
-0.702633 0.534190 0.474812
-0.522505 -0.503718 0.765293
0.471508 -0.553024 -0.499625
0.621346 -0.203959 -0.898672
0.196180 0.259834 -1.020879
0.920299 -0.457410 0.304335
-1.018372 0.050486 0.223580
-0.051653 0.996244 0.093578
-0.871416 0.228793 -0.572178
1.025538 -0.129342 -0.231101
-0.946201 0.043918 0.182263
-0.447618 0.829561 -0.006095
-0.148425 -0.164983 0.985508
0.049060 0.791332 -0.839753
0.716697 0.370086 0.341928
0.577577 0.606445 -0.163280
0.697566 0.724789 -0.145967
0.523107 0.738400 0.437410
0.603836 0.719058 0.391544
-0.120774 -0.147635 1.006481
0.271501 0.595117 -0.726623
-0.396904 0.578792 -0.909745
0.598240 -0.453368 0.376849
-0.893714 0.147534 0.143785
-0.437196 -0.767133 -0.447015
0.211920 0.399155 -0.702943
0.195049 0.514119 -0.814111
0.693875 0.182199 0.919369
0.384811 0.689007 -0.617553
-0.171010 0.941708 -0.361407
0.323976 0.656200 -0.477796
0.762135 0.474995 -0.272132
0.355324 0.336353 -0.828842
-0.938294 0.236025 0.036908
0.153489 0.545330 -0.975608
-0.555270 0.635685 0.634214
-0.752137 -0.016152 -0.473382
-0.373632 -0.950570 0.081996
0.661407 0.166777 0.798031
0.324458 -1.011312 0.336159
-0.802062 -0.831841 0.076334
0.732636 0.413380 -0.315669
0.606963 -0.617902 -0.306914
0.722909 -0.392278 0.296345
0.138243 0.055820 0.965151
-0.166444 0.976205 0.338773
0.377429 -1.024031 0.126977
-0.009628 -0.880452 0.457797
0.386179 0.885089 -0.067363
0.121957 0.467057 -0.893066
-0.624453 0.661034 0.114188
-0.484768 0.047290 1.106496
-0.469988 -0.431748 -0.544994
-0.640189 0.691126 0.387030
-0.936994 0.224736 -0.719171
-0.015860 -0.997982 0.071704
0.564469 0.132457 -0.791318
-0.014691 0.959381 -0.095710
-0.192484 -0.821038 0.503085
0.856717 -0.662756 -0.346709
-0.733255 -0.053897 0.256871
-0.911577 -0.186471 0.681511
0.348401 0.277945 0.732699
-0.780326 0.267645 -0.516564
-0.917852 -0.190783 -0.192725
0.035996 0.760304 -0.736082
-0.017506 0.144077 0.827557
-0.390373 0.379326 0.893472
1.189067 0.150755 0.096091
-0.275659 0.566477 0.590816
0.244203 0.988353 0.042711
-0.423382 0.799663 0.230809
0.433699 0.406052 -0.856748
0.665613 -0.546939 0.511518
-0.519778 -0.346561 -0.696810
-0.342584 -0.717497 0.683951
0.237486 -0.945355 0.665832
-0.891292 0.008724 0.409519
0.342031 0.207887 -0.994450
-0.778686 -0.184911 -0.342822
-0.680775 -0.413312 -0.428461
-0.028806 -1.005022 -0.292942
-0.590522 0.270394 -0.947112
0.350114 0.361655 0.904993
-0.202852 0.941464 0.104236
-0.600826 0.698287 -0.388924
-0.520855 -0.679533 -0.180274
-0.951954 -0.453655 -0.111978
-0.659136 0.837769 0.218940
0.950898 -0.080760 0.029941
-0.408436 -0.320013 0.799358
0.082300 1.023265 -0.006235
0.135370 0.100688 0.941329
0.405013 0.579048 0.698202
0.024966 0.982770 -0.705388
0.263829 0.419689 0.839917
0.239976 0.569880 -0.739773
-0.158045 0.705070 0.593787
0.483145 0.924740 -0.256521
0.512225 -0.388299 0.742249
0.554170 0.305718 0.688312
-0.884886 -0.137369 0.692695
-0.786643 0.496472 0.662406
0.859973 -0.095606 -0.367187
0.338162 0.287128 -0.681715
-0.864970 0.646421 -0.213589
0.692605 -0.134511 -0.608248
0.659492 -0.743259 0.420729
0.312526 -0.697160 -0.247161
-0.016680 0.335636 1.036126
0.402101 0.741180 0.247796
-0.401179 -0.715231 0.692093
0.613319 -0.291549 -0.736000
-0.584704 -0.217852 0.654961
-0.461236 -0.222777 0.811099
-0.200037 1.049378 -0.027652
0.120645 -0.980110 0.214756
0.345952 0.828477 0.560571
-0.406299 0.814037 -0.778855
-0.752669 0.380908 0.004329
-1.136311 -0.054377 -0.235451
0.034055 0.713527 -0.714633
0.658893 0.579692 -0.241120
-0.335645 -0.279879 -0.748762
-0.074784 0.302029 -0.930440
-0.651629 -0.364866 -0.796917
0.210410 0.306958 0.914416
-1.137421 0.135419 0.114028
-0.304150 -0.063165 0.796446
0.937645 0.316582 -0.134841
-0.419558 0.693386 -0.329232
0.688162 0.774803 0.012730
0.996141 0.419046 -0.131706
0.587775 -0.037127 -0.755486
-0.311612 0.637561 0.208304
0.308409 -0.780750 -0.579222
-0.029544 1.012952 0.249622
-0.414036 -0.901877 0.312547
0.051814 -0.805165 -0.781955
-0.353465 -0.242294 -0.783337
-0.869690 0.156992 0.599719
-0.948807 0.586848 -0.089987
-0.223989 0.312950 -0.726504
0.133276 -0.063197 1.021370
0.214988 -0.387482 -0.839847
0.891317 -0.199075 0.386890
0.186238 0.184600 1.000991
-0.097330 -0.805740 -0.496224
0.603128 -0.246101 -0.667154
0.274444 0.595149 -0.759816
0.748907 0.332475 -0.350672
-0.029962 -0.536491 -0.711269
-0.879937 -0.444687 0.410433
0.233384 -0.358580 -0.774849
0.680950 0.820735 0.020100
0.033691 -0.115241 1.039347
0.192719 0.614434 0.519570
0.468356 0.776898 0.214825
0.529400 0.885814 -0.433764
0.344867 -0.802819 0.223479
-0.483675 -0.820168 0.051571
-1.023864 -0.149430 -0.154664
-0.459266 0.563538 -0.796439
0.443136 -0.431048 0.753759
-0.729887 0.585163 -0.094430
0.367522 -0.826408 -0.697627
-1.050309 0.422465 -0.310472
-0.774074 0.755388 -0.188551
-0.741156 0.177050 0.660665
-0.257812 0.770697 0.429464
-0.011604 -0.772499 0.493881
-0.219781 -0.003757 -1.029036
0.114549 1.020679 -0.174708
0.919973 -0.672164 -0.042541
-0.217868 0.194790 -1.024164
-0.717505 -0.201398 -0.408170
0.785330 -0.523157 0.575342
-0.439979 -0.435786 -0.653343
0.711892 0.642867 0.067909
0.782999 -0.310967 -0.583848
-0.182448 -0.188765 -1.170487
-0.570428 0.965847 -0.678566
0.208627 0.249852 1.009492
0.213860 -0.753303 0.592026
-0.302359 -0.284194 0.968283
-1.064477 -0.227155 -0.026448
0.475512 -0.374173 -0.755499
0.281948 -1.139726 0.113138
0.590094 0.830433 -0.093345
-0.287828 0.704599 0.722994
0.006023 0.634437 -0.857364
-0.039620 -1.041117 -0.024509
0.757039 0.161904 -0.758620
-0.795332 -0.373582 -0.329004
0.064985 -0.828457 0.448211
0.635524 -0.621578 -0.042687
-0.552991 0.846689 -0.259133
0.456125 -0.949766 -0.227487
0.800487 0.667590 -0.084819
0.546368 -0.788384 0.665485
0.431637 0.445351 0.783731
-0.352118 0.265114 0.971570
0.213630 -0.697604 0.511164
0.525491 0.722487 -0.354895
0.128822 0.982544 0.402440
-0.186718 -1.060111 -0.135390
-0.158285 -0.830793 -0.476235
-0.458947 -0.562989 0.676862
-0.112485 -0.306077 -0.783025
-0.553461 -0.152249 0.774836
-0.012273 1.085732 -0.083905
-0.575271 0.838573 0.290187
0.414720 0.904791 0.334664
0.516745 -0.335037 0.794169
-0.833457 -0.481605 0.273532
-0.738567 0.530587 0.212821
-0.518562 0.126200 -0.927263
0.984784 -0.338666 0.038366
0.427753 0.615605 -0.734087
-0.714354 -0.429953 0.449888
-0.783894 -0.029017 0.019180
-0.791509 -0.667068 0.400003
0.378082 0.043208 -0.872761
0.353407 -0.366416 -0.758770
0.877716 -0.398841 0.462650
-0.455938 -0.197755 -0.822282
-0.187192 -0.537370 -0.948375
0.205243 -0.108671 -1.035989
-0.115697 -0.420203 0.975413
0.436723 0.621718 0.410132
-0.951026 -0.494309 -0.329067
-0.734398 -0.582440 -0.417560
-0.816128 0.421469 -0.289493
-0.072106 -0.844530 0.557183
0.713117 -0.311966 0.265415
0.721829 -0.364548 -0.655338
-0.648140 0.206821 -0.584689
0.390144 0.336356 -0.694561
0.799373 -0.076368 0.271798
0.499878 -0.799870 0.587578
0.586136 0.583656 -0.440338
0.290305 -0.157602 -1.105058
0.355597 -0.379166 -0.790882
-0.290471 -0.034542 0.775959
-0.680913 -0.439814 -0.363432
-0.762472 0.561302 0.604988
0.897445 0.321583 0.245440
-0.468506 0.789964 -0.223175
0.267772 -0.776467 -0.598045
0.685635 0.019960 -0.795224
-0.541940 0.936413 0.255729
-0.767457 0.571197 0.628829
-0.897866 -0.214936 0.277454
0.758328 -0.417791 0.052568
-0.218733 0.316073 -0.878220
-0.205121 0.294000 0.961365
-0.056849 -0.722403 0.539851
-0.786191 0.243390 -0.374696
0.046051 0.286155 0.992942
-0.931079 0.286825 0.202772
0.626651 0.765850 0.165386
0.358030 0.718076 0.458514
-0.763739 0.007833 0.609173
-0.752544 0.420356 0.284033
0.626169 -0.371134 -0.810022
-0.677624 0.794468 -0.356952
-0.368441 -0.204329 0.698103
-0.510350 -0.559201 -0.499574
0.819305 0.067561 -0.217405
-0.478848 -0.792964 -0.127016
0.430074 0.885424 -0.120179
0.808144 -0.201713 0.193135
0.250118 0.338245 0.804461
-0.661130 0.393101 -0.466548
0.573334 0.340771 -0.772687
0.801547 -0.015744 -0.609255
-0.587601 -0.008105 0.717998
-0.803793 -0.549105 0.296778
0.779533 0.349478 -0.404778
-0.000187 -0.754000 0.614728
0.201100 0.781310 0.843687
0.655484 -0.488591 0.785926
0.132107 0.456210 0.728967
0.342501 0.876099 -0.536633
0.905501 0.211681 0.551472
-0.868857 0.154077 -0.069859
-0.724617 -0.312711 0.740001
0.940041 0.411771 0.527262
0.118138 -0.730220 0.490830
-0.825920 0.249612 0.283668
-0.831952 -0.128503 -0.710796
-0.952933 0.372020 0.092499
-0.210487 0.151392 1.022796
-0.466261 -0.183388 0.904570
0.236884 0.349698 -0.949349
0.266956 0.585623 -0.581448
0.482732 -0.570371 -0.813682
0.939808 -0.330930 0.504821
-0.527698 0.539030 0.620991
-0.106060 0.809086 -0.570486
-0.523225 -0.665852 0.009913
-0.646448 0.417497 0.716448
0.923743 0.148606 0.492238
0.550645 0.823008 0.083949
-0.232149 -1.069212 0.201012
-0.523359 -0.812487 0.016162
0.952019 0.163665 -0.427764
0.155995 0.876636 0.116784
0.109581 0.917196 0.376881
-0.308052 -0.576479 0.733628
0.976275 0.121529 0.278724
0.651750 0.499728 0.502945
0.223274 -0.688401 -0.670918
0.468498 0.972427 -0.083236
-0.105510 -0.150620 -0.938475
0.053681 0.721650 -0.425246
0.849628 0.612746 0.532166
0.008799 0.204968 1.119502
-0.090249 -0.512667 -0.698050
0.645957 -0.825280 -0.210599
0.366889 -0.665190 0.569956
-0.660532 0.497998 -0.607525
-0.503661 -0.890603 0.113411
0.241122 0.829642 0.455216
-0.240075 0.863740 0.213790
0.578560 -0.441050 -0.580864
0.866656 0.070958 -0.262732
0.648483 0.386314 0.520371
0.258242 0.953056 0.107724
0.132072 0.022223 -0.918713
0.380490 0.827883 0.557583
-0.367609 -0.211341 -1.067599
-0.722413 0.388770 0.462960
0.642800 -0.513843 -0.609284
0.173059 -0.383646 0.961925
-0.550895 0.846548 -0.276585
-0.055938 0.943654 -0.348766
-0.556526 0.524640 -0.754377
-0.814455 -0.518988 -0.407541
-0.065266 0.572570 0.660068
-0.093390 -0.092396 1.078947
-0.884701 0.566047 -0.286750
-0.870087 -0.295134 -0.094934
-0.827895 0.351326 0.445827
-0.187121 0.652237 0.825171
0.911953 -0.306141 0.182194
0.092293 -1.076978 -0.240227
0.775308 0.938545 -0.216066
0.574489 -0.623693 0.360486
-0.097328 0.007702 -0.856348
0.788802 -0.615420 0.246445
0.316288 -0.976454 -0.309868
-0.704292 0.357666 0.574811
0.658631 0.093607 -0.932317
-0.099821 0.846693 0.152791
-1.032165 -0.276342 -0.040691
-0.601977 -0.669788 0.267405
-0.028595 0.576511 -1.019929
0.758272 0.909079 0.191841
0.466102 -0.788925 0.113542
0.933562 -0.091787 0.114653
-1.048633 -0.170752 0.224767
0.424961 0.792701 0.339273
-0.110200 0.781084 0.607208
0.884052 0.102611 -0.461527
0.527099 -0.314868 0.525301
0.737542 0.673242 -0.003484
-0.440288 -0.229648 -0.787541
-0.067215 0.441320 -0.839360
-1.017693 -0.360466 -0.379383
-0.417136 -0.585049 0.498199
0.472468 -0.862729 0.449139
0.214648 0.764230 0.561127
0.969126 0.067063 0.033572
0.698888 0.811925 -0.129055
0.593243 -0.430910 -0.729072
0.697031 -0.706821 -0.363222
-0.889855 -0.624675 -0.144738
-0.443506 -0.324432 -0.795539
-0.396157 -0.670217 -0.524566
0.395021 0.779764 0.175133
0.694952 -0.414467 0.432422
-0.091786 0.051387 1.290630
-0.417069 0.376456 0.974044
-0.823140 -0.098305 0.246607
0.819882 0.249220 -0.136675
0.506383 0.872223 0.285479
-0.065025 -0.863210 0.602569
0.591312 0.338751 -0.805225
-0.764176 -0.578671 -0.175596
0.021165 0.724066 0.671079
-0.771160 0.643729 -0.239952
-0.240278 0.968762 0.144979
-0.472034 0.603260 0.136581
-0.146480 -0.743628 -0.616546
-0.256594 0.841182 -0.252070
-0.877803 -0.389093 -0.336777
-0.410113 0.062184 -1.230492
-0.164455 -0.272852 -0.986587
0.668463 -0.280190 0.642595
-0.106357 -0.967384 -0.495695
0.228906 1.022268 0.037903
0.935604 0.185695 -0.419460
-0.038577 0.499632 0.934844
-0.873729 -0.594411 -0.580410
0.832649 0.278815 -0.124776
-0.697938 0.015938 0.780768
-0.543196 -0.378424 0.620515
-0.414873 0.709179 -0.662672
0.094710 -0.716648 0.549680
0.748609 0.592816 -0.080136
0.863831 0.441086 -0.033057
-0.101992 -0.739559 -0.804571
-0.594211 0.016838 -0.915837
-0.294088 -0.721536 0.399089
-0.922339 0.400320 -0.007117
0.020833 0.921367 -0.117337
0.326699 -0.704559 0.401249
0.253270 -0.789329 0.519502
-0.241309 -0.666273 -0.661139
-0.168110 1.200385 0.273947
-0.602148 -0.383360 -0.760867
-0.478607 0.571381 0.433490
0.751565 0.487505 0.296181
0.389809 -0.222948 1.006505
0.399843 0.464118 -1.042125
0.371397 -0.120062 -0.745390
-0.689251 0.243236 -0.353731
0.163620 -0.442380 0.529565
0.000451 0.593272 -0.916229
0.130016 -0.266111 -1.140349
0.768295 -0.509867 0.784625
-0.432563 -0.521703 1.287324
0.031220 0.626918 -0.912216
-0.322913 0.835063 0.769436
-0.102980 -0.064043 -0.701953
-0.986910 0.193677 -1.125138
0.142626 0.334854 0.647876
-0.059621 0.072032 -1.249110
1.166233 0.684630 0.795795
-0.194824 0.481895 -0.526611
-1.186109 0.616531 0.667390
